101.7923001110377 28.971276887841203 83.76273697200917 0.9676813789929313 -0.24797386050023662 0.04584444632611545
-96.33535429522186 -57.26479379559935 21.079599787495262 -0.98414533494333 0.11061305288353804 0.1386459961234526
82.18631976290298 75.90451187515816 104.14399694665195 -0.0439542584566661 -0.0077764706997732 0.9990032781062234
93.7994728570821 95.34404133955948 -96.9563989513964 0.1621280712449717 -0.04344156109778551 -0.985813024505039
72.04655360930235 104.39877360685406 -55.465112996729516 -0.2554711237341707 0.9615133077951543 0.10112696905781776
3.4334591078863594 -98.93497222001264 -86.19778743259151 -0.0720231286982461 -0.9964688251267282 -0.043157264545773004
97.6469108113782 -66.6020539121722 -56.02133322213429 0.9301855758199609 -0.2783286964471337 0.23934897382384393
-100.3633043673516 -42.33685702242265 4.200606383695797 -0.9618606224052162 0.25201980557761366 0.10634923912690629
-55.06189310317605 31.767430072323567 102.54915485442392 -0.06071179672533295 -0.005401956674478025 0.9981407198398775
-2.4500512743634566 21.739192641655666 -96.63595026316848 -0.17102215836040507 0.04743195938177873 -0.984124804371353
44.14295616748485 99.43047431199714 -62.54850446643441 0.2198343029153033 0.9712525127534183 -0.09133146080028325
62.968588122802714 -95.99059599645966 89.270582983726 -0.0015410242411147055 -0.9808954242953587 -0.19452966827894558
103.29145566176445 71.04595220352009 76.77662430867692 0.9896668596442986 0.12561063516188517 -0.06914821224023045
-103.57180746976567 -62.40211106131981 -7.410622763606032 -0.9582787988486917 0.2772065740496302 0.06970121219014433
-69.52356281081536 -14.092143369330003 97.92086104811328 0.2533076837009977 0.04918441666147062 0.9661346234017836
-87.59995666819367 -56.862798771013665 -103.32106081234129 0.14261644969637524 0.03425871737601478 -0.9891849617537418
-22.94884511741104 96.74168209764613 51.71381145886102 0.15012312404638087 0.9790703256945777 0.1374203222630061
1.9515794404807798 -96.73072223784601 -32.20740016191193 -0.22509671927066224 -0.9420688174648109 -0.24867209359724618
99.45947693724293 -44.264856366820986 0.7521295556133212 0.9961515968915389 -0.06860175224188325 -0.05455085333686514
-96.06031177119579 69.78235050202517 -61.568234896857895 -0.9714898526054947 -0.11776239952498416 -0.20576560340025776
-81.87366137354344 -12.998249272379073 95.1153666914919 -0.18680788752274838 -0.039721482665353906 0.9815931015314615
-84.40036270829026 -82.47718314555071 -95.73249333130215 0.03790833045093351 0.008649850157136065 -0.9992437833555343
-50.35264175914933 103.3453906301248 68.82754515480761 -0.2486630349459009 0.9684672552962053 0.015423049974908622
-34.261243701379996 -97.03260580161897 38.06982258514659 0.14186993010721416 -0.9839013500454958 0.10867868378861127
104.98871214965797 -48.862804633149615 -84.53258574748021 0.9764131482024604 0.08523958793447024 0.19837231829598087
-97.6386461142267 -83.58404980453669 71.82032174193813 -0.9551975161648797 0.15148102358842358 0.25426601150182837
-12.337341365640615 37.513938032855194 98.63423350492594 -0.22057732408938296 0.025691795543779827 0.9750310639868373
29.84831943133338 -25.40979793893541 -99.37318737679799 -0.1276017793278869 0.029757923471673338 -0.9913789648277853
-68.41817515060123 104.81291112290542 -20.624103080837955 0.15419521493522048 0.9473186680857698 0.28073328407455395
-32.920670001908384 -96.5054079383334 52.92968606095991 0.13129621264840552 -0.9703335587259959 0.20301253496848146
96.81749176296167 -39.70476661747909 -87.83942109402733 0.9232493655776863 -0.2469327394115961 0.29433795400370066
-96.83968654646361 -61.86799885676853 -75.65713311213676 -0.987125991459319 0.13890288376156987 -0.0792985867981032
86.50694679986235 -91.63441569914114 103.10075776725155 0.1655467048313161 0.03114163461409108 0.9857101435579607
32.520217802430864 -22.895717254491682 -96.59621176943995 -0.08086847624894823 0.0150891689209452 -0.9966105591104524
-5.653734404418999 104.29593371136646 90.25450024332332 -0.2663541829425259 0.9447795109467974 0.19091130119547634
101.50321692323776 -103.96466365396552 -96.07787502202454 -0.04623346264360701 -0.9907515649671187 0.12756881847531287
102.32426506696328 -63.88718698559624 6.806740690698405 0.9457078367408395 0.2888518083975098 0.14900107487011663
-97.4101009418758 -16.295471692637378 80.7191606524638 -0.9476512622354452 0.095649415357066 -0.30464450516203145
21.79561351310893 -86.88208205407169 97.98238671817005 -0.029798039087511333 -0.002466861333657117 0.9995528957797579
-13.23490936651046 -83.10807584246648 -99.2456921167798 -0.2823033760669761 -0.08932595068685598 -0.9551574102707243
-15.542992429086665 103.5867410099186 33.63846582978975 0.29811683278875556 0.951533885350331 -0.07556202113564932
93.92794283618366 -98.83496457690038 -37.89737780403065 -0.17391026780491622 -0.9427678001730326 -0.28450675512002027
95.99993044524977 67.01209833893171 51.50167247156503 0.960095582216679 -0.17553056603535094 -0.21772802620545953
-98.5674729966839 -28.04905396894362 37.727512987522324 -0.9832548996835778 0.10458923810147931 0.1492343577115861
-38.70663220262541 32.80597825677049 99.08589883468045 0.036919411495188306 0.00038534414047507333 0.9993181718375497
-59.51658150511844 -98.7165742026951 -97.48159186565603 0.1572059136131037 -0.0033633978277856206 -0.9875601188181514
44.89819484709903 96.12237055529536 -55.96207101976719 -0.05575768883796202 0.9629764248087275 -0.2637564888264367
43.66690806048354 -103.35713381302662 -48.16747385287873 -0.2055905001447462 -0.960099059102825 -0.18958465908428132
96.02651306506147 -35.11954165030732 -52.145135053029044 0.9900361957011451 -0.11317202868300465 -0.08378796527770115
-100.6492930003206 -46.20133848042797 8.595312554079094 -0.9779765143060583 0.011032388614411468 0.20842318457223735
-20.057817872507805 16.213472041120276 99.11450053074635 -0.26058934791664057 -0.027826093750482794 0.9650486517575004
53.68806602028886 -76.4646552386628 -97.1987032823516 -0.11919983708241964 -0.005323766207167767 -0.9928560098790237
-28.367662366862618 100.46802861196795 -94.02236906865382 -0.12121855649252522 0.9442739252208956 0.3060274754164906
72.86135793073046 -102.23049632703784 -76.7187485679643 0.22101303179404475 -0.9351720443751305 -0.27677876941059526
95.73906986200898 66.95654738638788 -55.245055459076646 0.976414381750435 0.09382987605189423 0.19445027506023752
-102.49441731676609 -72.10354507033786 3.6837119876143394 -0.9961716829486099 0.0803774309688841 -0.03437217889771288
-79.76551264686213 -85.49950214656357 102.07171447019226 -0.22028800655700218 0.00669793346498002 0.9754118780568755
41.08148999755522 -58.130240813909154 -97.12276698056962 0.16120397221460822 -0.04193136136283278 -0.9860299388337513
-47.51290150615064 102.22161146726283 97.2894639233446 -0.2559253734922113 0.965604827055533 0.04592952394622055
-31.313220807356444 -97.01359842491975 92.98215434502657 -0.2757680172521738 -0.9545932567287582 0.11271075755573674
95.46452022547986 -21.90271746151077 39.57317903884305 0.9987932086610553 -0.03814243829429603 0.03093995367674943
-96.17485996776463 -52.56278349767554 -28.571522139119978 -0.9601412236084061 0.2785719580091209 0.02294547752210264
-16.381635224984922 -14.841721113154946 103.12106118793098 -0.2894037861234917 -0.009780119349132694 0.9571571437558751
-77.74439147307292 68.9009269604704 -97.70993654745715 -0.1508577568845511 -0.036393911870556926 -0.9878853275388393
-60.55783959303835 96.96626835954302 27.97501341514734 0.2582620650938522 0.9507875288127897 0.17118347112828283
21.836492206427142 -95.82887934407599 -65.29484094322659 0.06991101289027399 -0.960284616842307 0.2701220186002603
98.45747606818937 59.72080942450952 24.103448493370877 0.9712128632657504 -0.08098142426547834 -0.2240258537559389
-96.34883885707663 42.533513360283976 -97.94234204330019 -0.9592964452620117 0.1886908585572242 0.2101097094486729
-34.86695277033422 25.071118979177506 98.8648880146693 -0.06076710682051385 -0.006387426779430524 0.9981315341716249
84.9709449368074 56.66802711747761 -102.57445912623648 -0.3006899935089266 0.005378811960111074 -0.9537067663519534
6.6089755707110385 98.22532469191937 -41.333422769094604 0.2489144010871041 0.9378058521133206 0.24199546415884973
32.97405309589239 -100.3712111558787 -54.52156600486147 0.1748534125416799 -0.9764212310511498 -0.12660119934300187
98.65541291152584 -62.19686805281222 -37.91539578431846 0.9913401058912176 -0.10336638854743568 -0.08099496385732928
-95.94221878437719 -54.92738651219258 63.09280417333353 -0.9962413050700671 0.06740018941171984 0.0544102613442894
-11.207513677493663 86.93087270731318 99.6002759953855 -0.20375422543278462 0.062450079665405354 0.9770282509569876
-80.6807750700494 -62.18099384993971 -102.08143177459652 0.05238887304035405 -0.011047058094691592 -0.9985656555725388
-37.51168176136885 104.75837962262048 61.74177277651199 -0.029044254112568217 0.9819933905251771 -0.18666925903295256
-41.84917371913158 -100.28173499452318 2.202877020023415 0.24162616514293184 -0.9648761098057625 0.10310620274464058
104.65537509392817 56.94796839181692 43.18832554239354 0.9707777740742339 -0.20746302962539162 0.1206217422446276
-96.33938682757005 -92.56879461943193 54.19317324959175 -0.9540916173325575 0.18380955484798822 -0.23648093640361162
-57.95215668495131 53.90804377914003 98.91257523479334 -0.2872169067008714 0.0008738830388307195 0.9578651704877975
-45.26724586691647 -43.30613000155367 -97.2402241061683 0.3002578415262568 0.03126043580950725 -0.9533456947797021
-15.004943199478857 102.22718153458558 44.48834428820352 0.22063084609042696 0.9561650500525148 0.1925368193657883
23.820794204173403 -103.72573825244794 102.65390766190788 0.2953675077162557 -0.9524142276319003 -0.07526735274884086
95.92868227058663 92.67320472327586 33.388105674146324 0.9821365129988046 -0.011422313395890752 0.18782279039359184
-101.96325635519052 -79.85860730273147 96.9753796726051 -0.9933530985520158 0.10091023617220461 -0.05537820720083764
1.3130763065553936 -84.51604201943711 102.89108440023398 -0.09371356504600796 0.021669489276024696 0.9953633512245083
-61.61066622647129 45.1093922781136 -97.13805719090907 -0.2777016389314228 0.019136374273343183 -0.9604767560511145
-23.11577442499341 104.30223088513333 45.904770876059786 0.18005242366221408 0.9626775985345947 0.2020716853322809
-94.15155402289926 -102.78557974361608 48.20627842096318 -0.1012841627093254 -0.9736850328570128 0.20415429256939158
100.07913231739914 -19.647351883879807 6.353739076174819 0.9898015312082787 0.04859890505847198 -0.13390696488556691
-101.47877608737616 -69.20158810000686 4.974333002115319 -0.96887650417226 -0.22623469485131373 -0.10047976168599208
-56.04196688626329 83.70054929266863 101.4072866460871 -0.21890407439329598 -0.008505775844796577 0.9757093101899215
5.960718348245031 10.49628327994891 -104.49769175540185 -0.13719012422722357 0.03607701245108342 -0.989887528453169
100.03160953306696 97.15826489316099 53.40408497691669 0.1475203410685824 0.9431773631462603 0.29774856946671713
-49.938633795394445 -103.61096599949084 -42.77193731468023 -0.2676792969747052 -0.958136948242595 -0.10159420447788599
102.2677515936299 -34.77588907564209 69.90271311556951 0.9464840729453197 -0.302196150885253 0.11333748740366625
-101.38444929366177 10.016352412605618 -35.001604484007814 -0.9492524807330208 -0.2970944335224858 0.1032212448682883
5.558519613600866 -22.347473266133118 96.59384615706611 -0.025120951302379974 0.0016914343907654668 0.9996829881794355
5.713957841631629 32.133175213801564 -103.74654200656913 0.11601687252156537 0.018780981302572008 -0.9930696652459118
-20.497831039831404 96.07075645079907 48.61166039901073 -0.2820270220080926 0.9516181959620013 -0.12199822937761398
-49.16249369118111 -100.052690151891 10.14960454159299 -0.25821371036564406 -0.9510982889302007 0.16952204745475463
97.70364649520005 -77.30378616096257 -24.855708212809596 0.933472929202102 0.261998023145998 0.2449190199115544
-102.43742808225224 -88.9454270248581 -2.7204448665417313 -0.9781411830164594 0.16360479542958803 0.1283483424108156
58.509851106041495 70.7568474249362 98.97238269956027 -0.14982798198856212 -0.006259937977491188 0.9886922620258303
-13.923948747432469 8.371277212322678 -103.3635682183909 0.04932204986529759 -0.007445440620706495 -0.9987551756116454
-22.43065757425574 98.46406669261465 -74.5081885246939 0.25269589923529884 0.9651815540108263 -0.06759696965774534
-23.19235698139296 -104.10054349951253 15.34774794118478 0.13837367129052483 -0.9653865691382216 0.22109160821052307
95.94185463171105 63.04163284889074 14.637389237696675 0.9711776975364386 -0.22665493911164777 0.07376597036653938
-101.80258994426148 -50.51656291416835 -8.113122806857122 -0.9220794750386465 -0.26670586306694327 -0.28042365149568066
71.93641179649684 39.903793182229954 100.47020730806419 0.27217258914113396 -0.05063821268474848 0.960915112346718
-19.466844783007936 -95.79287506842694 -103.34901294244055 0.1746536269851446 0.014074449017607111 -0.9845293395657565
51.4173022388444 101.29347109852242 37.17214439733994 -0.171708649720449 0.9455893250502714 -0.2763638325869585
35.29302611128573 -100.39831011204313 21.340981990294072 -0.09866369052890371 -0.9790938260141488 -0.17787848670424544
95.89604280960785 -86.56696026113977 -77.20794949606287 0.9637321218258169 0.266461769745871 -0.014782510781572158
-100.4501556578972 -32.01772310380833 24.127923388114745 -0.9342627659140261 -0.2934820708228647 0.2025373010884578
7.487433493012414 -94.43392859894283 98.51352021293036 0.24002620092681706 -0.06999291189964008 0.9682398541438214
-6.644552173686912 31.633411474774196 -100.14178529762627 0.17428540745950558 3.0201253126627566e-05 -0.9846951791466019
24.462739071441362 102.75390264662684 -94.11391680891539 0.26639989093960226 0.9239414644950504 -0.2745237117155993
-1.3976122270432807 -97.96119408084256 55.248888547663675 -0.26727569742073787 -0.9365952730059365 0.22661199472047702
99.74914263006772 72.94406516179365 -54.20220408889504 0.998423343868085 -0.05603336794440666 0.003329879288892936
-97.75433175336453 60.230807447344475 85.90659131716468 -0.9687909834292108 -0.2185971874202047 -0.11687300833913092
-15.342470312939952 96.54611522612218 101.57426695561674 0.10492180583386587 0.002624585518812204 0.9944770114041928
59.33569573349971 -94.63697598613584 -98.72900498029509 0.06663462619720967 0.005985943448861055 -0.9977594875883592
62.97036969289813 96.69066589043791 -86.89143016772317 -0.10975949480281044 0.9701724854485968 0.21614393764138806
101.72357978489896 -98.23120193361302 -80.26914190122159 0.05679997410136926 -0.9975887318519344 0.03988088544820764
103.25740500308196 77.65136344607359 71.66064616258654 0.9821470093095495 -0.18758989735948667 -0.014045729349705837
-100.53449987183173 29.7858046836968 29.27570786186933 -0.9949575770150004 -0.10027587600633306 -0.0020417227044474046
-46.54598633052541 -41.286663441881146 102.98617297367235 0.22252663870435327 -0.023332766554032245 0.974647360367778
77.04532265879276 4.063710396610506 -101.48471273521874 0.041428418563351936 0.01205321226658665 -0.999068769509585
78.77573188078851 104.10755336632914 77.43779798273027 0.03791748016570996 0.9979785357457738 0.051001047916726834
-38.170917380880496 -97.16797668438696 96.62923261456325 0.12913852639770568 -0.971586914355896 -0.198348453112743
98.05891021209474 -41.483155068311916 -95.01475351054314 0.9605812896276812 0.17903089724202623 -0.21267704119141728
-102.63570662040097 -25.21443823720345 93.67679515731666 -0.9490767366623063 -0.27381977775195687 -0.15580782149268502
63.732656776642465 39.19477537632996 95.93407296573906 -0.290737075088069 0.0746043600537662 0.9538900055196105
73.27838131905204 -92.9242143263908 -102.10445242153132 -0.24368499741279318 0.029410958280773943 -0.9694083853407364
-27.32749286869712 101.16661963369391 5.183120514507694 -0.1754248064577605 0.9502229669607122 0.2574926219130143
-91.33764967189772 -95.38391504138066 82.51736367045947 -0.021313765845069117 -0.9989576264528216 0.04036562816613437
102.89570063151048 -57.34163589726241 15.462129189019064 0.951599271028722 -0.07797957037879918 -0.2972843991553252
-102.52173224125171 30.623170797920565 -52.5477737984746 -0.9457809341884469 -0.25556603837602 0.2004605311636563
86.81675411177784 0.4003359142096419 98.83502630745842 0.197580860985692 0.03589623323032273 0.9796291460609096
89.9403170996808 -26.123562180640327 -102.79139058926438 -0.29021268359861335 -0.03522082566774061 -0.9563138039983391
10.061776321986748 95.7342293491266 0.482295821315903 -0.29355655258129854 0.9097450153470159 -0.29357887779579966
6.999751417803986 -97.03790092883744 7.726434543889209 0.2904176843532658 -0.9108278872952061 -0.29334302163207854
101.64485178490133 -29.835327268149083 -9.30518865247698 0.9640361094186702 0.2473930938154274 -0.09711352567662716
-103.74387397122882 2.5804930844355667 -42.62916137845055 -0.9759496327870275 -0.016983081762659544 0.21733358966507943
4.113492447925547 59.00460831916199 102.5200944033563 -0.0005545754587815403 3.061605718080565e-05 0.9999998457543469
71.93236177403257 85.98428987063566 -97.93750580620635 0.24831032149031695 -0.06600330754998954 -0.9664292770988661
-20.201665791401798 102.62557669242977 -72.37317703528784 -0.038967347626867634 0.9716783323382657 0.23307244428128743
-96.43802334259144 -103.69780779128243 -39.60219261694609 0.2271431634784856 -0.9414669758569971 0.24909017775831008
96.28509481546472 -70.08814730419867 58.19156393988974 0.9994616145076247 -0.03071884578097262 0.011525347703946474
-104.74585109422794 -85.12376255801918 91.26996820794244 -0.9790578611489467 0.10034699300353432 0.17713324227145644
76.71866855755503 77.64889319030785 100.37139561534923 0.1482995828033941 -0.03793176721480629 0.988214761464481
-95.5601066462104 78.24794044042049 -103.01679038854081 0.19569289360370307 0.02635147415801001 -0.9803111195955647
-22.615623793015068 99.00727401939716 -38.76886560671395 0.2911319641470807 0.9261329706217101 0.2398330673182279
-3.989591825409326 -102.34619295579836 90.2200860111939 -0.12615771638237458 -0.964625947408253 0.23147572698646948
102.81357228775425 33.10129469737323 46.600043826431616 0.9879822019380354 0.005646693043819182 0.15446450566826
-102.13897066898856 66.54314390023045 50.988688456218135 -0.97383798994369 -0.004611612923096559 -0.22719661610305972
-41.05359386925118 -92.34908073517965 96.6529955756692 0.23299903975902822 -0.07242721983454928 0.9697761315367628
-18.556392792510582 -8.705499683164415 -102.9751592206677 0.11874665762674337 -0.020221531441767967 -0.9927186514660771
13.444401315333883 96.62185241575284 -89.31649941074079 0.2044849630922037 0.9412956508610468 -0.26860453745098634
-60.3848362336963 -98.39790681465061 15.472687446791468 -0.0562497017496299 -0.9969463473944633 -0.05416596228182299
96.98883760591512 8.997305235933187 71.08207689056954 0.987784813526869 0.1333640374748698 -0.08059277681089218
-104.68674405932327 -27.176651922980483 -29.631161615597897 -0.9163971742844528 0.2847657106006237 0.2812911463761205
86.52577579315316 37.44852034028944 99.01085915669897 -0.023490094075955925 0.003952734540419527 0.9997162554294872
26.34863895739113 -37.5235182061833 -101.41784789424906 0.21170570359086704 0.04475830535249591 -0.9763080401026454
84.48001503624178 100.89197458980968 63.79135051844842 -0.011515339584115747 0.9937393515549595 -0.11112829579090634
6.828266844844584 -104.9144793009176 39.09449413032482 0.23692979392247182 -0.9378741395765144 -0.25348840420316626
103.26860508114983 -21.625393326938934 -28.330804087752835 0.9868450752127039 0.08348583352526898 0.13844462116320602
-101.5928550855663 -23.0401379778042 85.78212892175951 -0.999405466407136 0.012819807994880968 0.03200572196513083
-59.543574974789195 -22.349043486879392 95.48502975051586 0.23132434964571652 -0.03829039205458645 0.9721228786204409
13.934212529760558 42.1827701769359 -100.39338127792288 -0.19215104494402327 -0.0437496884669613 -0.9803896881781059
-38.64304025226122 102.01220820309882 -84.21081751641121 -0.1245050804666729 0.9914713947640368 -0.038509197636966634
83.60008114762884 -96.25358132821599 37.734470406412136 0.1044284039609602 -0.9928413292716041 -0.05797243600505925
99.44685870159546 7.885892015660797 19.12572479576791 0.9924953603479874 0.11249969082462531 -0.04792472485139986
-103.19873065818123 8.842102814752344 31.270220242855043 -0.9433563682000901 0.23111397044193493 -0.2380443136117739
88.04641559237523 -43.553276044644875 96.31371462513708 -0.29183172852335953 0.056116552058184596 0.9548220644770256
-20.153658276159792 14.061623439222553 -96.56290220041498 0.27759777542015573 0.06679193518350231 -0.9583727419309377
60.2344084293102 97.83031058132298 13.444056395578551 -0.22839509031019342 0.9721152202596874 -0.05317594626950993
-14.971242244721706 -99.69639861598571 67.99535452894999 0.2556963521501709 -0.962338992843127 0.09232030302578095
99.93802897638645 59.367538394394835 73.04739079549384 0.9701898569784188 0.19209519040594117 -0.14775344070139523
-96.05330937536375 -69.25767991998116 33.944672090043795 -0.9948412022456569 0.03882786290783936 0.09371968510631126
94.04698591990974 55.73853821168752 103.96659920824403 0.15152653408603775 -0.011062784564163758 0.9883912809538334
79.67147706019051 94.59102803429658 -96.69510064451515 -0.2620947399569136 -0.022810048764247765 -0.9647725374212776
65.90022656999166 96.38990389739523 79.56169136722949 0.2042114059069714 0.9454996611821139 -0.2536298334226591
78.97500445898515 -101.58137103407465 -73.98491890010794 -0.05493103531116947 -0.9976817354708932 -0.04017133390154684
104.14378349853156 -22.261352372542262 -100.02034238353038 0.9945068369692421 0.039332875325060024 -0.09700039247392997
-96.77699379786095 -79.80828166120307 -40.339578298486416 -0.9718402956562078 -0.08448700507611732 -0.2199736023074653
-77.58435117689557 -95.89621794801774 97.1171948900099 -0.07366650263942852 -0.004661667248795956 0.9972720367318721
1.2387579727171016 -9.229542595168441 -104.49650829099399 0.27328030649872087 0.08707891177266547 -0.9579849357920267
68.2363475954359 101.22472801288282 11.916324985996933 0.04235961639050366 0.9504782504874062 0.3078908219639697
99.71852485270765 -102.14234195804181 6.4566035281346075 0.14426655595272028 -0.9465371316446136 0.2885387655957656
98.066414700633 -77.25943627540023 -13.687193427386664 0.9503184168156805 0.23402185476156714 -0.20525271777712106
-102.41990919311715 -59.93941721633309 -90.31714987712539 -0.9625968073465715 -0.17002910295412188 -0.21094428324750625
-63.328388185645686 84.49293547715395 103.69019544864145 -0.06236794855214927 0.0036048918765630494 0.9980467142112912
3.513367217687401 -86.24807753413762 -95.33296526790902 0.10695962836963904 0.016503094646691117 -0.9941263932549578
57.11980213635861 101.63254181345694 -24.472849928697908 -0.2969280526985673 0.9497576409452089 -0.09896542318824611
-84.38063294533967 -97.53875919892043 77.96189044473603 0.204281750049593 -0.9679673709178319 -0.14597306407380764
96.58397859224812 -59.526774537526734 88.82385086012393 0.9557283141457601 -0.02277379325367836 0.2933679326050174
-99.14267725544563 -23.350330074645463 99.51647557557148 -0.9164530484010629 -0.27323091753308354 -0.2923331588794341
4.109478071429671 86.60834842260213 103.96003083003882 -0.19159924792785005 0.016276242899795665 0.9813382760855449
68.99021615054282 -89.77869425624596 -98.27001971040973 0.22987732639541264 -0.05771015745508072 -0.971507052231638
-7.869585250735399 103.08747563694803 62.05548544549034 0.25354080016917385 0.9673243442429703 0.0008220002934003609
-25.108838581092098 -104.04853076286015 -5.914834814394496 0.22938882401132213 -0.9700518795941901 -0.07987564281106799
96.83045557951904 34.34197741465639 -55.42481017274214 0.9617206828464852 -0.25937729958486466 0.08841235572788374
-96.03570760081601 -61.48008216957892 -52.53770081188675 -0.9831925209855361 -0.07363847801422484 0.16706238725055553
68.22841133949721 -19.2543247625049 102.0237299704573 -0.20498875547128254 -0.012283478734527998 0.9786872464074072
-75.35123055183203 27.19440201740094 -104.60137133354905 -0.09305290320462997 -0.02797407617680191 -0.9952681087361557
83.92428284467766 102.25093114962625 11.965100143975025 -0.2985030285729013 0.9493347944391001 -0.09828219574305944
-67.31683603255718 -103.58677676846217 100.57456387162657 -0.1345919075504028 -0.9668526376922378 0.21698155545922798
102.25420702754235 -60.19288925840285 -27.909127147618275 0.9593798918321849 0.20594496662163492 -0.1928131060671942
-103.42940164729255 39.07463658495175 75.02841226628553 -0.947051447717353 -0.25067850235476635 0.20063360594286592
-57.24447332974063 -80.63158194349919 100.48539712050552 -0.2795198892458572 -0.032078665764990445 0.9596038717714314
-82.96662398902754 -22.778914582072506 -96.14568669480285 -0.21806740051736184 -0.04620550852972896 -0.9748392994812579
-62.878247048956815 97.61428477085667 -58.00882068509624 -0.16834688051974525 0.977752510404766 -0.12513734940635732
5.219677988521989 -101.66939251871828 3.167755762355423 -0.00120304539368969 -0.9792988115621885 0.20241637867194975
101.10038561578283 -60.602904457621534 19.755051660270418 0.9471404844579406 -0.27140491426358115 0.1710680426448951
-95.89667567356597 35.583194090024456 -101.37738710116766 -0.9433297160922782 0.18008528985019176 0.2787442109117859
-74.57543360124806 -95.00831220601408 97.81661558283623 0.1544939718467476 0.014471703002050688 0.9878877377896927
-72.45795726266316 6.324758383118359 -98.12079607807489 -0.09802742315246464 0.017498129086214984 -0.9950298687921734
72.20752892758031 102.08682451779202 34.278031700193885 -0.14820689716860158 0.9884645039029533 0.03118717934575094
-16.590936910693326 -96.9966439039123 -28.650616430118315 0.2645913713123492 -0.9590790769105128 -0.10079052762799486
101.46297755574807 -49.2373692486809 67.92005233268493 0.98737374121198 -0.12057137995332977 -0.10274063218224734
-103.16476761293872 45.51142813058682 67.45294583969303 -0.9720055329163441 -0.11879795559729826 0.2027123324465399
7.0093105271759715 7.108607379608485 96.63483123570485 -0.15492277044169808 0.01481847523260691 0.9878154422717077
-39.49433532313428 -26.745622874747696 -97.06089540279577 -0.3056238892411907 -0.023488687661118227 -0.9518625530385397
-47.191520471245774 101.6746569461386 -9.891983967633545 0.2761401285928352 0.9525664667128048 0.12792089694422645
-32.06487435454044 -97.57098705723298 -68.03932463595585 -0.24055225836895955 -0.9612850678644099 -0.13440844205075153
104.3924507847658 27.93570242188785 -88.78017416504514 0.9171098443894068 0.257367682127682 -0.30441979160406507
-104.21062558265331 -30.610500527497265 -13.711551312940404 -0.9126005282701097 -0.28966776818156187 -0.28853571681479856
19.002192921085197 37.62861999603032 100.14501431929335 0.23405169418762922 -0.014452724517151508 0.9721167230337784
32.452682299750236 10.716623120907782 -96.32787039565218 0.19350093549944275 0.04445709157398014 -0.9800923196156692
62.92269619236654 95.52386339074182 65.100457652685 0.03537774600259955 0.9980220407132545 -0.05196557839884624
47.06220233384691 -96.24110683041147 -11.529576857008982 -0.22654701722323878 -0.9535067274047644 0.19874951517201178
97.3893905003572 84.2396860750666 -12.766938759294577 0.99920070661943 0.03858741830994748 -0.010438344667851847
-98.41855151216829 -58.527192794619204 95.51678158939404 -0.9871329670625888 0.04948133936091926 0.1520529591729785
73.05242076212271 69.21303308618752 100.08514082258411 0.30091729224975744 -0.004165176049188326 0.9536411455749764
88.24992831020377 -27.901697932273233 -96.7553322205752 -0.24982808774473142 -0.02297295508904994 -0.9680176495851134
-4.607850152372849 104.12928751157904 38.69024278178337 -0.03079644809625273 0.9973220240448423 -0.06633520286962233
-76.57133280196875 -103.16063817483632 15.432886883177572 0.06558792555588483 -0.9969564407327877 -0.04214355588565576
103.99841283269579 14.737871760818367 -73.283414897493 0.959679169564455 -0.07177720214741273 0.27177918381650856
-98.67756299860345 93.90843580447603 47.474701667839724 -0.9548082468641342 0.24527974793697882 -0.16786618769785222
5.218203221432203 -97.88834578461586 99.1011044835511 0.10954845812500302 0.0059719196603380785 0.9939635161805512
-2.997176671590991 -99.4319748225406 -100.85393600559782 0.29087186482729677 -0.017204073051451028 -0.9566073270273081
-50.232650629423766 103.56042474423255 -63.539437769407314 -0.09315998659293541 0.9954435089487068 0.020333159859943228
-27.09032447711902 -104.76485491513792 1.392908787412542 -0.22732411697439125 -0.9641183634151985 -0.13711136775414529
102.54833983229229 -28.937746781631322 -88.75948868641267 0.9378956915723645 0.16024274449232062 0.30769129751678875
-100.79814663770078 41.33149754497337 4.8563677489557975 -0.9834597519631271 0.08226189095832491 -0.16136882463656105
55.72665983051581 -8.109797269851516 102.62230239721319 0.04406531093326915 0.00012246474745415787 0.9990286449220263
44.531513807591075 -83.47119900823033 -98.3386174149784 -0.2841507477684257 0.024921437478974084 -0.9584556716388224
48.660922806161786 97.27828445928935 76.87259087723814 0.13422364590107258 0.9815604737777268 0.1360994092502535
30.55341969599313 -98.74531178738184 48.90083482948651 0.13343342519850232 -0.9624407271048837 -0.23643893048653913
104.11457421299647 -63.472762519816165 -32.70252373067858 0.9733160821056202 0.217899828749613 -0.0719407321720805
-103.66954597339166 67.12602901179564 -50.27228618262027 -0.9432920003258288 -0.26045422289922 0.2058246824247762
14.563285257072916 -38.010638466198564 98.81406034606925 -0.22020397010150153 -0.026376689588786608 0.9750971653111672
-61.31697382475793 -90.16959237502587 -103.29589770413862 -0.09571585254394427 0.030493056123300413 -0.9949415304931477
-69.2957687320404 103.9256769258713 -2.665589214741732 0.05527658359174762 0.9891545201200942 0.1360802507067458
75.39649228079125 -97.405398954482 -7.164094850806876 -0.1091231415802149 -0.9940277373989628 -0.0009986256370133595
103.40002234295525 -57.813903747171395 70.64782267579884 0.9558405921772256 0.15023568379627067 -0.25258266302451876
-99.07242180267156 -36.242316780273356 -4.429947529722906 -0.9577613130657379 -0.05184151662748086 0.28285283160745683
50.03754796081951 28.584548204580667 102.45289139642873 0.007557313854596196 -0.0014894904882105104 0.9999703337726518
-2.7618817209331312 27.968804200906682 -102.64340343730609 -0.2726125388069889 0.06385187983816912 -0.9600027818326049
-46.35479673879643 103.07149229387194 -64.39126441084821 -0.2128062381060399 0.9312996419636559 -0.29562557721131283
-53.42972713018649 -95.35326837332474 40.333904507386684 -0.17014221282725314 -0.9523377240237737 0.25318863879618325
97.10636793356531 -20.571626786398507 -57.81377849891244 0.9905491394023883 -0.10954763584593397 0.08253313219401359
-99.48413503528975 42.4859619331602 -77.49686881585946 -0.9786807167009766 0.19936785504945004 -0.04936104871904778
32.770918604621954 -1.8746036422311656 99.82214683620363 -0.1614050530624093 0.004716742195872545 0.9868769736846527
-8.837510019644823 -0.8304773650862918 -95.19633010538095 0.2908549887964405 -0.07999865521005636 -0.9534167979728514
-4.88115813134768 99.60164892005116 -22.10981983851776 -0.30269220091432114 0.9381310112514182 0.16818928989099083
11.597319702790568 -104.00915491431219 47.51568347810232 0.006005366907431037 -0.9561338343086824 0.2928686163768393
97.7106870372449 -0.24882649148050007 -66.59677229298157 0.9844199430602237 -0.15475645553031533 -0.08347343994948093
-103.92050402888509 -1.1636136875045184 24.844686026835614 -0.9681089779583048 -0.24912918163169306 -0.02645104262688881
-43.34458306731804 -100.32618218634755 97.977418822913 0.18450691821270154 -0.01117961496788223 0.9827676293716747
16.415051501784063 -1.6111370132816107 -99.17318685294464 -0.1814840358108457 0.008441803551655134 -0.9833576565515738
-66.41141453884819 102.46365510922618 -64.11630481280123 -0.29656213425339845 0.9367372494363565 0.18594145865158299
-68.42175364987408 -101.29077942637416 26.529742714550572 -0.24677867231542722 -0.9587809189112378 -0.140852534311447
98.3730299408881 0.10404808457212167 80.97138339928205 0.9523497790316742 0.1436663021238871 -0.2690536972657491
-103.17237001480004 -52.023308507883556 43.94498133855777 -0.9825496611366555 -0.13850370190939376 0.12414865266138392
-60.905625152338736 21.6519884030277 101.43399883093649 -0.2702051356840613 -0.0853246255209019 0.9590145426059377
-14.896270090483185 4.603457293089556 -104.45347355963227 0.14138821419244219 -0.02395850123959012 -0.9896642678736182
-2.4089191191264794 102.63682641604962 -37.15426478854848 -0.18022450242014706 0.968049968726647 -0.17435133144243065
86.08119802656138 -96.54999450153822 8.962456979867515 -0.04052990036241146 -0.9762327218295033 0.2129013856365728
100.08934157165535 75.34653287073385 -72.61705233028233 0.9795011055404386 -0.1471484828469834 0.13756783141741297
-97.97117711165527 -71.21417659236381 -59.9926913189751 -0.9302802745334607 0.2749783597838772 0.24282815418422443
-36.665325140294314 39.96409359237643 101.06438879992498 -0.07166984426854422 0.0152153337172936 0.9973123517947594
12.772389950299585 -36.845735473242904 -104.69997940263552 -0.1764999663440887 -0.040703027009003856 -0.9834587055249651
-67.82508787870039 103.60191212826774 -85.95982894100787 0.20048040739645975 0.9488039653616934 0.24408736461372987
-11.563979847879104 -98.36837560245529 -29.114186947479183 0.07468527611546878 -0.9887865470940824 -0.12931849758374894
98.47058452424895 10.136908692954258 38.342110073580706 0.9695464201435537 -0.2058188315745458 0.13273412430911768
-101.69795692634425 83.04501632046923 -72.82543941167314 -0.9604684371192616 -0.27715296581248017 -0.026203336410258765
-61.48295858102952 -69.87362671831585 98.69097847332448 0.07287848068951874 -0.011331278232112132 0.9972764557463561
-91.59807200291512 94.79595119783741 -95.50076983060097 -0.23383162728878892 0.030850453184623143 -0.9717875383116313
85.66559325968312 96.39792738362814 13.48209542518743 -0.2734703300716395 0.943940444003417 0.18490650812002402
-27.942257983183325 -99.62772080527873 -2.0043071803940284 -0.04555775093273261 -0.9908900856182938 0.12673330088544704
96.0059953055388 15.166841387375902 -56.583578422246426 0.9891435279075789 0.07440199317400654 0.1267257851042314
-103.40711075910755 55.87631886808809 -37.969470592702514 -0.9920483272663573 0.06788723604341539 -0.1059784862621086
65.78815531105704 -9.576546873384562 96.81794450351734 0.040633589057855676 0.009211015181444801 0.9991316573102889
5.71294045959854 -26.307685503854096 -96.96096549186825 0.1456197151387543 -0.0036446542900041095 -0.9893339249505267
36.012355400466824 96.76897805917481 -67.08085091441285 -0.2258078916720004 0.9406513350392317 -0.25334928842915094
56.01782937895521 -98.72926263311287 -26.94220315690178 -0.1941820610600948 -0.9806156780090168 0.026195786023129893
99.30744716023283 -65.28856242577044 -2.1072474322082977 0.9784922344157319 0.10221616426056221 -0.17917813190221113
-102.8688334323685 -52.54856989329308 -60.56198833315852 -0.9838936556891639 -0.17247228020082114 -0.04697432125047148
29.05262228385888 42.6443336949214 97.39743103229284 0.02442329932398709 0.002719034152265893 0.9996980090524387
36.80398172648752 -7.753717516187257 -96.29765701884159 0.1574318740100872 -0.0007338731077964528 -0.9875295775195463
-78.5972702344858 101.12161592894516 -92.74406298182447 0.011177876388930615 0.988827586391968 -0.14864406974268693
95.9043998826518 -103.4796566864786 46.482188965117466 0.12471608575171693 -0.9858426357695265 -0.11207227781107684
95.43752592550983 39.166632718873245 -97.75350793951503 0.9816745552706713 -0.09243727632929649 -0.16664458430729515
-99.79653723585184 -43.32832639816434 77.15945244507422 -0.9760146453507983 -0.0630174982050514 0.20838475707386034
74.50207318761376 89.73430928615305 102.02097501739456 -0.12170347985456388 -0.010058418079173228 0.9925155370154335
29.661627024560026 34.23537022180105 -100.48374716123467 -0.06148497420538233 -0.016593560847715544 -0.9979700655256933
96.38689550086553 98.30765617928655 19.23209207206275 0.23991935527860844 0.9699036495908628 0.04154050400538726
73.98511611467505 -100.25695836444089 -80.34666771809215 -0.23144052517492547 -0.940861930903578 -0.24741485461294677
101.24497137028187 -31.080214198278963 -76.87738941558798 0.9793028999676856 0.008731686843288781 -0.20221173991574254
-103.3088492062995 2.6879268337002147 -94.18691114331305 -0.976866204740213 0.17612411158291377 -0.12129598243792523
20.855588059544793 -49.104490013563144 103.59310498825008 -0.23018808718267003 -0.023657840943799482 0.972858546285667
57.46271755732269 3.273445616379436 -97.67933769000909 -0.21977388901251368 -0.06346456132284628 -0.9734843024745772
-86.19725669645948 103.64443971377993 19.671957846827056 0.21833061119696093 0.9319926154283139 0.28934669343445496
10.799008216082392 -96.59195359877617 -37.56979339730133 0.28235283733942335 -0.9536355843425353 0.10419235827088494
97.47689867899842 -54.62200748037823 40.17296816861837 0.9464242137551734 0.11399089523517694 -0.30213785499567064
-96.40045621209968 48.54538077413298 -75.2457165338299 -0.952240190347668 -0.037574704477849746 -0.3030293079390822
87.91441611997644 -7.50433752534093 101.56570237810666 0.03483007275695915 -0.0043624522139335655 0.9993837276253932
-5.0872319657209655 85.63095143226288 -102.98306890788592 -0.24658615910258566 0.06143680141398396 -0.9671715388549506
45.65128903410253 100.50223212442809 84.52472588276416 0.22100563966748 0.9715560419829641 -0.0850609459244664
42.675148403557564 -96.00707524816173 -87.31671342572741 -0.23543878211032837 -0.961664874364429 0.14060316245395116
98.21775873272841 24.44391576101345 35.09477396610761 0.976298478924373 -0.20213393646764988 0.07735083566483059
-101.37918283324953 69.0566187270439 94.41172575933243 -0.9767188956442022 -0.106495278761107 -0.18622286243413858
85.04988009466497 81.24433216146787 99.13540841981009 0.1679973398077093 -0.04436682556348596 0.98478854512375
60.89841000444096 60.70373039630697 -95.14338507577772 -0.046624268540916634 0.012055335601028764 -0.9988397501434206
-17.93085622911651 103.17604629870054 -20.91518418264564 -0.29197716475503677 0.9323930670031527 0.21305516625058493
-34.58183369990069 -102.28569721578096 93.17922184776815 0.2959390916612452 -0.9136383861506493 -0.2787202062620398
103.99548559869174 89.58132303700066 71.65335059770563 0.9985684205709716 -0.053413778004078184 0.002842139638764479
-97.16026935406832 -100.31032501958053 42.05994724679381 -0.9972629322500675 -0.0733776337842803 -0.009075616795427243
49.355327145903416 -71.65964395968425 104.28439854121956 -0.14077519533706429 -0.020935073647690337 0.9898202195697849
11.905046795809216 -75.3961516574904 -96.59747871836043 -0.058738634356329644 -0.002383962763877499 -0.9982705492778468
25.897797335367997 99.09738136873877 -23.597107460565823 -0.05480458204759741 0.9726428870923189 0.22574824910795352
-95.13862737106975 -103.00268853271781 -94.25086119135568 -0.23132500654818855 -0.955694758829067 -0.1820337037257991
103.06120564741529 -67.86360293771644 -44.99842918607882 0.9691277984178576 -0.21869796064925218 -0.11385302956713289
-98.65479152403218 32.09322108585249 -19.880820614489956 -0.9605517104284874 0.1809307869298132 -0.21119768448982956
-84.53258847370635 -84.95259189016654 99.19953997300333 0.19798350867116052 -0.008834067484627678 0.9801655419090867
20.597885826326998 -78.41249266797472 -98.06644722337093 0.0025481835290392225 -3.886325527169099e-05 -0.9999967526199022
79.92979298447672 103.8962376723094 -7.529304856553669 0.04131413064391287 0.957357238667637 0.28593751097016795
23.87200942560389 -99.94418060026773 41.280987662170126 -0.1741217906852346 -0.983140869808196 0.05581784769543758
102.28809503592736 -92.17445813311221 -73.43299818667012 0.9814113573108282 -0.02254078622800881 -0.19058767194533158
-102.72314022684598 46.607600492108304 61.57463302514497 -0.9865219956274959 -0.0668097281170719 0.14936804334283144
-73.27155351343883 39.46950059634709 96.43099042889068 -0.20859601319614804 -0.034732964518912696 0.9773849417984709
-54.38899907671481 13.624790020721356 -96.75763030814726 0.26037318782496066 -0.01295492079154787 -0.9654211376850791
36.5097726343038 104.26938401735389 74.43028154603674 -0.30230544499597056 0.9345347935482776 0.18776617792740594
-55.120204359107525 -104.43839402723796 -80.74792876626557 0.07976265009222998 -0.9949118175505536 -0.06154993865568374
95.42124278779097 -53.201054290933826 14.190311759527422 0.9957312683982487 0.04199629315826211 -0.08219216808784233
-103.57099500904467 80.53125286438492 -25.251413982752776 -0.9818874224458263 -0.03435211693038718 0.1863250431506524
67.55123395528251 56.551781718672046 104.09201054995724 -0.18656850079298024 -0.025300878524628576 0.9821161133276155
-18.33369354545523 51.11074180763422 -96.05414178497573 0.03378569038111651 0.00957348166215827 -0.9993832475954035
-35.03370623900016 98.10838374063223 16.022818147014533 0.1721277988033804 0.9701011959099453 0.17110140435775792
-43.60452148073381 -102.77711092029682 50.7949843761946 -0.14569923048396538 -0.989113139675961 0.020662312473268166
96.74586067223737 11.795417432583719 57.88841601210829 0.9620160136083408 0.1052850039553922 -0.2518734950391364
-102.71453528428971 31.71831077743224 20.307245867232567 -0.962189040044682 0.13424506721801813 -0.23700319226863395
34.122676668035254 60.852968796217894 96.92857812479073 -0.07662707062909917 0.0019621935778600004 0.9970578929245614
31.0526338909606 74.99935047412077 -98.99703480202 -0.19542743923853972 0.03453042671487249 -0.9801100783195507
-8.52503634138047 104.67708732548377 -4.559105605911607 -0.019424571875548535 0.995258653335602 -0.09530424422897356
-22.94365555894957 -104.09860452687799 -69.4518061459657 -0.03326609843025431 -0.995519460729702 -0.088511976611485
101.98187795226326 83.700876640193 91.77165878314956 0.9689105599876107 0.24227909535991365 0.05013149405390352
-96.34329192065647 17.108887525466237 -23.60261605037038 -0.9773892450729621 -0.00759361613355414 -0.21131161967511752
78.97744284695136 54.27678872715124 101.5601162377151 0.050376211265625165 0.007980632544550266 0.9986984263744035
-34.411398770510985 -88.6844817314284 -102.25868044758565 0.020503969485552862 0.0049742971403509036 -0.9997773970256054
81.2220949553263 96.1225887970297 -48.11326707714636 0.1813248548772717 0.9617424638056478 -0.20536000174517638
-84.14922573795602 -103.23137563803724 39.0964728210531 -0.3004630867958869 -0.9512800130944582 0.06919732769475095
95.18752639771378 -90.89493512049765 -20.10358708672437 0.9724533329974396 -0.12579334663220113 0.19624104842066498
-104.41852657614335 -90.60843469352368 82.77522729121453 -0.9647941640321421 0.1047192498511129 0.2412594034646943
-94.96196971943796 20.908448794829617 98.65496071801674 -0.17763692243797558 0.022594629879116913 0.9838366767341977
-79.09581847091405 -54.25174790635038 -102.66651249722035 -0.29853937243281087 0.025394800366166335 -0.954059404451204
-28.871179338739758 102.98315149624361 -78.6513864150465 0.03968515568594402 0.9979224576272127 0.05075290121211216
-53.08604740683175 -97.85230977144143 95.90161464116667 0.1718029878471942 -0.9817463426228573 -0.08159566234439235
98.11224492813129 40.78328482696863 -44.719072760972004 0.9583628926606651 0.0348919758949297 0.28341333064841884
-96.40201076908771 -72.26670816101154 98.10579743160383 -0.9506217229848168 0.0802241099012662 -0.29980398926619994
-16.583522074498937 69.67757243161908 101.86634373060271 0.09004304166536108 0.007125816241900418 0.9959123823863908
6.397732352418406 -15.85593464771463 -97.06932034717353 0.024711562024026423 -0.007710436492108119 -0.9996648877856188
-43.54332686828629 98.33197817396729 -77.52928880568054 -0.005970199794278734 0.9991756473133288 -0.04015448331639937
60.17582748857329 -98.46437643807491 48.887559164425035 0.016509866384432276 -0.9786731731454418 0.20475899120038732
102.84594404711407 4.285667786693874 5.753593686968642 0.918138812467384 0.2773100036653653 0.28305526475954645
-96.12237547722276 40.15162301845987 -14.892979135866096 -0.9550953525833199 -0.13807246505194984 -0.26216190010797136
-55.42534502067354 -26.19591790323994 103.70997371722021 0.07445058115501299 -0.004083355292115749 0.9972163442178629
-29.939822275697107 76.73473665183336 -103.8081501560712 0.2774228844439386 -0.0456035676303085 -0.959664971646977
14.85246110995664 97.87148772391785 1.6057494136485397 0.16672477477293102 0.9452271681995399 0.2806215422493329
90.03989067178365 -102.67215612448513 1.1561202040857377 0.24119050642146886 -0.9522740282689657 -0.18708638298003516
102.77688005554357 -79.37198439392755 -10.765067274625787 0.9739124306952599 0.22687797569276288 -0.004578371195614597
-104.7203920452785 73.55035088097249 60.177635445966246 -0.9888781785143522 -0.0018711423901732896 -0.1487159940433194
14.903069353089395 96.00887674009152 96.10510306855411 -0.12485374022254937 -0.02743921798352605 0.9917956608439527
-23.141431870572188 -60.64159006334434 -97.10955620077509 -0.17164566236613008 0.004004604374774516 -0.9851506127159918
20.513391878819004 98.06758056277184 80.94901762550064 0.2858003144396328 0.9202796030087079 0.26721458147403154
57.46312579332137 -96.56366922107931 -94.84963941327115 0.1308436517765317 -0.9771576627164217 0.1674599683039546
98.97641833311252 90.04222928703983 21.259985634130473 0.9802069177473621 -0.1943089736776439 -0.03792652302224178
-103.4146288495084 -73.9882148370857 -24.869701626718534 -0.9577240117911983 -0.10713632354775997 0.2669953659059317
-1.3479800870398653 14.7771778974952 99.41024826453092 0.27835958051844484 -0.05839950885681937 0.9586998702925111
102.37929413873573 -17.839265764392128 -96.94093417145123 -0.14757200838883178 0.016197363534915073 -0.9889186760065786
-97.21872449718656 101.90223592681784 -97.39088631036503 -0.026157012221665853 0.9965607698476876 0.0786285108101369
6.361431918347251 -98.2590094907967 -92.03175437739051 -0.06418560345290288 -0.9579661573024396 -0.2796087440917829
103.75092457548854 52.87930393391186 32.914098888367576 0.9728499564586653 -0.05572576818195516 -0.22462769414946146
-103.9546592691143 -43.37984877946723 -0.026708326441812424 -0.9641866597165405 0.2277053986639114 -0.1359938845829815
-69.04429151990882 79.53562469230421 96.9919516474071 -0.07170710814231819 0.016810457756174076 0.9972840614147475
71.99432907047726 21.327005720165094 -96.75128087636304 9.023160452513223e-05 2.1006310261886446e-05 -0.9999999957084962
76.10333771015726 97.69688970191153 -96.1395593253154 0.2545499900127798 0.9629926244533111 0.088597448230849
42.172573480337654 -102.67565787842986 21.449331268098973 0.11136344163184571 -0.9920234749572284 -0.059055981929823705
96.56226057819393 96.12392575722575 -100.79672349132102 0.9329115131481761 -0.22616129640745875 -0.2802270091245276
-96.3379331244849 -4.114729884585184 26.20259248391944 -0.9573991322674659 0.130783566430427 0.25745399644449374
-80.9452782194599 -76.38861827326674 102.73416229800951 -0.09953699977891525 -0.022541865093252327 0.9947784929285162
49.40747538095332 -19.221467989261765 -104.27649027351083 0.195374180286268 -0.042457106184131066 -0.9798093303352129
39.701881327842 96.67507183155656 -89.77295841125043 0.04780928814278601 0.9967149853852094 0.06537208789569003
26.821467933657388 -102.84713089614331 69.8894051971296 -0.01412379870034168 -0.9895257842599698 -0.14366363699615814
103.41029427700211 -90.28525738101361 -15.726307350063305 0.9862914901537756 -0.12285396257910296 -0.1101635163239502
-100.48070944290393 25.1619850466332 59.49054032599974 -0.9530473156243722 0.2968417165289332 0.05988162914729904
-59.940626428603416 -58.82297808411174 104.51549465309752 0.15473420358772086 -0.048022126806240656 0.9867883266319475
